  0.23067    -6.11467   -18.37029
  5.64876   -17.29163   -18.39514
  2.53121     0.48880    -8.96072
  6.86316   -11.57163   -12.68207
-16.88016    16.23692     6.55662
-10.15164    17.96205    -9.88628
-13.74766   -11.27014    -2.71525
 17.73805    16.79085    -5.21998
  0.98060    18.12398    13.78109
  3.39725    13.03219     4.94053
  0.69547   -17.82683     9.14248
-10.04284     3.65692    -9.12769
  8.04445   -20.69166   -17.05283
 19.45939     9.85971   -10.06860
  6.59949   -10.12428    13.44126
  1.04734    12.94163     1.41942
-19.96194   -13.82891   -11.64433
 -4.16415   -19.64278    14.71411
-17.05085     6.05424    10.47790
 11.57371     9.57827    19.31167
-17.17371     9.66386     0.44165
  1.39114    -4.71096    -0.11814
 13.60444     0.78669    16.79739
 16.65555    -2.35146   -10.64085
  7.98376    16.52554    16.07822
 14.85229    19.52141     9.13133
  3.48101   -19.41357    13.67787
-18.26125   -12.40150   -16.86640
 -8.98769     8.12087     3.84898
-13.46549    -8.98194    16.85866
  5.05046    19.05101    16.13604
-18.52534     3.00585    -6.70674
  6.23591    -3.99898   -13.00429
 -7.26888   -20.97215    11.18291
 11.16741    -4.47104     6.95297
  3.60517   -17.67152    -3.73923
 16.84298     5.86626    -9.34919
 19.50410    14.67709    12.10708
-16.22800    -6.89657    -6.07226
  3.91205   -13.92655    -7.72765
 -9.35825    14.78537    20.42337
-20.24742    -6.40737   -13.39683
-20.18658   -12.51265    15.54685
-17.78958   -15.14453    -3.96646
  9.00210   -19.04981    11.04265
  0.48989    10.43775     4.20513
 12.46574    19.06625    18.14321
 10.65344    -6.90529   -12.30903
  7.75672    -7.50060     9.09747
-19.53372     0.82170   -10.20259
  1.80691    19.42299   -13.82255
 16.54194   -13.22068    -7.60910
 -5.53699   -17.93949    -5.57841
-20.11547     3.92516   -14.16568
 18.41912   -19.63844     4.05963
  1.72287     5.29387   -10.34532
  9.38307     8.97669     2.03240
 14.31806    -3.58773   -18.93291
-14.46140     1.19957    -5.57902
-13.32264     8.60871   -13.74380
 -6.56441    13.19703    -2.72910
 -2.91346   -16.51254    16.57365
  6.95196    -9.57294    -2.20675
 13.89559    -8.04813   -10.10527
 13.39755   -18.47834    -3.63164
 16.20015   -18.21106   -10.34448
 17.18984    -9.13862    12.59487
 -3.38024    -7.83964    19.62978
 -7.63100    19.55483    -6.47108
  0.86688   -14.97062    -4.73340
-15.63931    11.90337    15.24300
 16.20083    -3.68101    19.52478
-19.12719    -6.91304    -9.31373
 -4.70576     9.98628   -18.42958
-16.34882    -9.10911     5.85603
 20.60963    -0.67494    -5.42289
 -2.53991    17.62645     9.77418
 -4.81620   -12.83486    -7.38042
 -0.10488     6.91478    20.73179
 16.94479    10.50125   -18.98296
 19.24597    13.26338    -4.74694
-10.48629    -3.78121    -5.19422
  3.28941    20.16471   -10.13420
 19.42163     3.62326    -6.87459
-13.34586     3.11790    11.45428
 -3.91290    -0.11848    15.06340
-18.44466   -16.80980     4.77879
-17.22124   -16.59896     0.15436
  4.78322    -6.85304    -8.28941
 -1.80465    -0.11904    -6.86027
-20.63751    13.39947   -11.50291
 11.69829    16.21250     1.70762
 11.71432   -13.26813    18.15373
 11.94672     0.71084    11.07680
 13.24533     6.68822   -20.09401
-14.96446   -17.82874    -3.85157
-14.92578    -7.31813     9.30563
-11.79510   -16.51892    -2.10920
 15.99891     0.29028     5.07574
  4.28774     4.57424    10.66428
 -4.43490     6.23373     9.87299
 -4.02675   -19.97846   -17.57038
 20.02547   -20.00081    14.59187
-14.67417   -17.75221    12.25191
 -3.87583    18.11065    18.64370
 15.03375    14.88395   -12.20583
  6.47960   -11.09690    17.78627
-10.96214    19.14355     0.50040
-19.49590    10.51178    -3.37357
  5.60407     2.58653     0.98562
 -8.85129     4.75867    21.24361
 20.25977   -11.78010    -1.27545
  0.06803   -11.24808    -7.88600
-15.38541    14.89050   -18.55021
 16.47813   -19.54481    20.56418
  0.53572    20.72964    11.25063
 19.06147     8.62112     9.01027
-14.54625   -16.78191     5.08689
-11.79458    15.12868     4.84885
-14.60281     2.18243    -9.19067
-17.13673   -12.89754     0.14395
-12.12232    -2.16924   -20.27331
 13.28355    21.03578     1.10692
  1.89775   -17.12282   -16.69297
 12.94135    -9.83082    16.94477
 -0.31776     7.21075    10.83025
  6.77876    -4.59288    13.14941
  8.68139   -18.06504   -12.19586
 17.20407    12.44066    -9.16468
-12.21226     3.06450     5.70782
 16.81737    20.11222   -15.00555
 -8.97805     9.31779   -14.19740
-18.95724   -13.05440    -8.10284
 15.16772    -6.01613    16.02335
  8.66417     9.41868     6.58899
 13.97845     2.87076   -18.37347
-18.80065    11.40048    -8.65518
  5.38386     1.54887    12.27722
-17.95565    -4.39633   -18.94699
  1.36049   -11.43850     2.39993
  6.21119    16.60089   -18.65972
 -5.85468    10.46263    18.63552
 20.37426    16.60531     3.36200
-11.52575    -4.90023     2.54224
-18.99391    -9.52324    -6.03678
-20.92282   -10.84436    20.38808
  2.51617     3.07262    -2.65629
 14.33021     3.94570     5.57879
 14.99291    -1.44484     0.37699
-13.07993   -20.08036   -11.22101
 -1.94382    -9.41587   -18.31364
 -9.48244    16.27557    12.91843
-12.65336    -7.17446    -7.10275
 17.69887     1.90286     0.46090
-15.89551   -11.33348   -14.53936
 -7.05776     2.44887    -0.44691
 11.59128    11.84550     5.35051
  4.74021    -7.91131    10.99606
 15.06498     9.68677   -15.18579
-10.93135    16.11547    -3.61595
 12.84399    16.06307   -15.55702
  6.30153    20.48863    19.34809
  2.46371    12.12208   -12.90565
 17.47993     3.89834   -20.41946
-13.41449    12.74884    20.28772
-13.06155   -10.66051    13.41093
  6.28956   -16.94402     7.44120
 -0.05032    -4.03161     3.73826
-10.70702   -15.99348   -19.75794
  4.11351    15.55806    12.38814
-10.32658    19.36637     4.80566
 12.70807    -7.91002     5.44748
 12.44748    16.85918    13.58077
 -8.63727    14.94559     9.04605
-19.88614    -1.23286    11.62231
  9.90465     2.62006   -16.35109
-12.79356    17.95763     7.45902
 -5.16417   -18.96913     0.49778
 -4.25739    -6.00929   -19.24270
-10.04661   -10.83590     0.52606
 13.65989    18.94060   -12.92917
  7.30747   -10.14821   -17.25530
-12.97717     7.94670    14.62265
 14.78988    -7.32597   -17.89280
-19.95926   -14.12608     7.45979
 14.93903   -18.97068    12.53362
-18.49513    -7.87314   -20.63254
-19.31155    -5.36862    11.21698
-11.13450   -16.00605   -10.56571
-12.70419   -14.24907     0.34351
-19.93045    18.81075    19.58158
  5.61105     3.80663    17.39414
-20.63564    20.41551     1.07300
  4.00541    -1.01457     8.73387
  8.90763     0.78756    -8.08612
 -0.95003    14.66710    14.97095
 18.10089    11.97741    17.23176
 17.92629   -18.05722    17.06968
-11.85487    11.16134    16.89539
  7.81267    -4.97467    19.05061
-16.11562   -17.95961     8.63258
  0.02846    20.43665     6.85719
-13.41738   -18.24617     1.15296
 14.01186    12.16837   -19.96837
-14.43191    -3.50647   -13.75139
 -6.32106    -7.18480   -14.92628
 -9.47385    11.20447    11.15883
-18.94548    -0.12681    19.69004
-18.07968    17.44807     1.66357
  5.76187     2.51514   -12.77374
 11.49378    -2.96653    14.75098
 -5.25742    13.93649     6.86943
  2.34639   -13.60617   -11.67738
-16.72058    19.52723    20.76997
-19.54501    17.49901    -9.63142
 -3.81565     4.38146     6.34247
 15.01943    12.58430    13.47354
  7.47789     0.78155     3.96082
 16.01104     8.55896    20.05965
-17.81531    13.92665     3.53974
-10.69016     1.70523    18.98984
-10.83435   -12.74169   -12.87691
  7.60689    16.15270     1.51115
  3.29248   -10.02677    -6.04398
 -4.08335    -3.74611    -8.38922
-12.21519    10.14251     0.34611
-14.38374   -18.64694    16.33063
 15.05904    18.46715   -17.69195
-17.31764   -13.43262     3.96800
 -3.51526    20.35473    -7.42826
-18.99595    -9.25465    13.43814
 -1.48145     5.08099    -3.55808
 -6.03758   -12.02724   -11.49934
-18.27310   -20.66897    12.31205
 -5.58188     5.85370    -3.98117
-17.49502    -4.24012    14.32926
 -3.10651   -19.22660    18.91717
  2.56009    20.95933    -2.59307
 13.01872     4.54681     9.43209
-13.55437   -10.91550     0.75987
 -9.70596   -20.51153   -17.92277
 18.95501   -12.54728    -4.83898
 18.85255   -10.79248   -14.26967
  0.64090    15.73665    18.62644
 -7.43937    19.45853    15.46032
-15.70510     4.66372   -15.95977
 19.52311    -2.03301    17.57139
-10.48907    20.52706    -3.21629
-18.64992    -7.64465    17.24976
-18.28270     7.25347     3.70686
  5.65746   -16.24384     3.45125
-15.40113     3.37718     2.92770
 -2.00272    -4.11955    19.40229
 -0.04833    18.86086    -7.71899
 -5.02006   -15.09461    -1.50925
 17.69809   -15.59287    19.73753
-12.67703    -3.72936    16.50443
  3.77452     7.71140    -2.55025
  1.97606    14.71543    -2.59841
 10.35231    16.41949    19.73467
 -8.72256   -11.02710     9.12882
-15.29318   -13.03396     7.51829
 -3.36076   -20.78375     9.21948
 19.59788   -15.86925    -8.94984
  2.09432    16.85950   -19.24128
-20.46288    -1.47538     0.61198
  4.96995    10.57120    -5.86056
  2.84645    10.82580    10.04565
 -4.36713    -0.95178    -0.37921
 -6.04861    20.08001    -1.83957
-16.09646   -12.19679    19.04248
-12.14135   -13.43226     4.98148
 20.24597     9.81233     0.33880
  7.64659    -1.35569   -19.84071
 16.37287   -11.74917   -18.99660
 16.39319     8.60962    -6.71029
 10.70576     3.26511     3.23589
-11.47807     2.23444     0.84763
 10.87572    15.05331    10.34785
 11.22968    -6.23639    16.70210
-14.76464   -17.60152   -20.37999
 -5.36850   -17.45586   -14.46776
 -6.76839    -8.99465    -0.52011
 -0.18744     2.60959   -18.27008
  9.57782    15.96234   -11.66388
 -3.67538    -8.50957   -12.78556
  8.46830    -8.52767    16.43912
  9.98236   -11.13842    -9.83049
  0.54076     7.86820    -0.99020
  5.32909   -12.12661     4.58737
 -0.10961    -7.65431     5.59606
 -0.32636    20.34950    19.67094
-18.68058     0.82469     8.30563
 14.40444     1.87852     2.23066
 17.97394    -7.74431    -3.01735
 -1.92809     0.18119     2.79690
  2.10686     1.66564     3.45086
-13.02202    16.87241    20.49256
 20.33364    -9.08045   -18.03128
 20.30291    -2.72817   -19.16367
 10.49180    11.39008    -2.97032
  5.46065    -0.20222    17.11725
  3.09708   -10.65142   -17.03599
 -6.06847     6.70728    18.97184
  2.33431   -10.13237     6.54800
 18.25685    -9.52271     0.59774
 -5.80757    17.32074    11.19861
 -0.49744     4.20311     3.84325
 15.82333    -2.66510    -4.51870
  0.46850   -17.65068   -10.92423
 -0.98102    17.04434   -13.74920
 12.57659   -14.31681    11.32993
 -9.94710    -9.30975   -14.07186
 10.16186   -17.06087    -7.44998
 13.42370    15.31035     5.89605
 20.60368     6.38437   -18.65008
 14.91767    13.33565   -16.26118
  9.40195    13.04630   -14.16051
 18.55841   -15.39560     8.40328
 20.14981    14.55507     6.58634
 -6.67357    -0.14048    12.64674
-15.04471   -11.52827    -6.19790
 -7.63596     1.32501     7.67511
  9.33101   -13.94927    -0.95846
-15.73655     9.60732    11.96178
 -0.12187     8.62495    -7.18939
-17.70937   -17.60819    14.80787
 16.34951     3.61047    17.84546
-15.82800    11.61829     8.81982
-19.23804    11.03672     5.76820
 13.54141   -18.70730    18.19091
 20.43048   -10.58426     5.56777
-14.12375    20.91268    10.91227
-15.54243   -18.76516   -15.85554
  2.43675     6.30690    18.16709
-12.11353     5.71915     2.84140
  7.37135    -2.99156     5.18913
  8.06626     1.73602    18.92248
 -7.62687     5.95942     0.49348
-12.11195    -0.43730    -7.94184
 10.14379     0.84680    -3.80806
-18.92284   -17.08968    -8.05977
 20.22518    -6.70043    20.64288
 -2.18976   -12.94980     5.20688
 19.65432    13.09471     2.60726
-15.60411    -2.82760    18.90860
 20.15636   -16.03994    -1.32772
 18.20037    16.56685   -16.06543
 -8.76499    -6.58703   -18.47917
 12.93030     6.89600    12.36040
  5.22381    -4.87956    16.36332
  0.67043     3.52388    -6.73650
 14.39021   -10.30082   -12.85019
  1.40784    15.34046   -16.15361
 13.43787     7.24231    -3.27364
 10.76829    -4.99056   -19.36024
 12.14125   -15.34102    -9.98477
  4.29597    18.71051     8.09564
  4.45515     5.89738   -13.79617
 -1.58624    11.06285   -11.52514
 16.89102   -11.97431     6.83264
-14.62084     1.40997    -0.92825
-13.23570   -14.90308   -14.89048
 10.34378   -12.56745     7.34588
 19.30222   -18.50967   -12.72079
 17.88669     6.75713   -14.39571
 12.39658   -17.15227   -17.38247
-15.15369    -2.73317    10.05566
  8.04779    -0.58295     9.50538
-14.67767    12.92388     1.99163
 20.75770     1.47276    -2.57610
  7.06874    20.50883    -8.23867
-17.34289    -1.38019    -7.25783
  4.40282     9.34034     6.50985
-19.70797    -7.06085     6.90853
 -3.32776     2.09015     9.50186
 -8.43091   -15.15294    -1.34814
 -4.20171    -2.17010     9.72348
 12.47017     5.94049    -7.03770
 20.59697   -20.16451    19.05654
-17.81642    -3.33788   -12.22632
 -7.22828    -1.87819     5.60950
-15.54078    -7.10553    -2.22140
-11.60645   -18.61075     6.07275
-12.21083   -19.50842    -7.13046
-16.44858    13.63915   -11.86942
 14.77322    14.74212    -6.34033
  6.23190   -12.72335     0.65902
 17.39864    12.41467     9.45597
 -8.37771   -15.51790   -15.36495
-11.32692   -11.62961    -7.70776
  7.07526   -20.57220    -4.34215
 -7.84252   -14.53977    -5.42793
  6.33613    -6.64920   -15.63934
-16.49241     3.69748    18.08026
 20.49198    14.89007    18.37502
 14.81799    -5.92308    11.43710
 -8.51865   -11.85540     4.24722
  5.98883     9.93294    -0.01661
 -0.23021     9.74147    14.08325
  2.06902    17.45446     2.24432
 -6.76204    -6.29486     5.90244
 -3.06059     4.00195    13.02554
 13.77270   -12.66396   -15.79359
 16.66307    -3.18985   -14.48142
  6.87189    14.96522    -9.61763
 18.86778    19.48523     6.66090
  3.64868    -8.06915    16.66985
-11.24712   -15.71229    -6.91034
 17.30833    -9.91447    19.05656
  8.08200    11.19869   -11.22853
  7.05816     7.09776    12.33955
-15.66691    17.71308    -9.79344
-19.39359   -20.27970   -16.18230
-11.50655    19.31799    15.61093
 -0.44671   -10.77506   -11.68374
-12.78578    10.13473   -10.23721
 17.58513    -4.52882    13.32399
 17.86653    -7.28072   -14.56838
 -1.36712    11.81959    11.24745
-18.05942     7.04156   -12.25379
 14.97179    17.62793    -9.44337
 -1.03124    19.66467    -2.33120
 10.89096    -7.67420    -0.66379
-20.01727    18.00853     8.23844
 10.55902   -20.54537    -6.07579
 20.58064    11.26572    20.32520
-20.65179     2.92958   -20.53733
  4.60851    -4.46009     8.94709
-19.30031   -17.97547   -20.02576
 -3.68296   -15.18125   -11.51199
-18.47644    -9.27238    -1.52045
  7.35078     8.93850   -18.09673
-12.54048   -10.94074     9.53484
-10.44330     4.84987    14.20254
 -8.17514    -9.12151    11.99004
  3.45786    -3.30269    19.80063
-13.18522    -8.76680   -16.55031
-16.35590   -11.43458    14.98592
-13.10152    15.34953    10.22234
 19.14913    -8.28904    -6.46426
 -9.24567     7.72625    17.12555
  5.19166    19.27002    12.35339
 -5.64222    13.31182    11.28063
  5.00312     9.67098    17.96068
-18.32186    -8.56059   -16.29685
-16.04152    -0.97214    14.19506
 -8.48822     1.05252   -11.33266
  9.28351    16.86489    -2.59157
-15.72217    -1.87759     3.37900
 12.17775   -17.41273     5.15312
 15.64951   -19.00468   -18.23469
  9.49597    -8.46113    20.74327
  7.41389    -0.56228   -14.63392
 14.86374    12.06891     7.04462
  4.19613   -17.97614    -9.81484
 -4.66902    -0.10416   -13.42537
 14.68580     2.91876    12.71446
 -4.48711   -12.00863    20.52164
-18.38577     5.89994    14.57064
 -1.39436   -19.14566   -14.86261
 -9.86469   -10.74671    15.78933
 -3.33373    17.35626     5.20256
  9.76273   -13.23571     3.76751
 11.70553     0.06659    21.10437
  0.16274   -17.14539    -0.97970
 11.54496    20.18764    11.56466
 10.82201    -0.55383   -11.55901
-19.48143     5.97510    -4.72464
-16.39396    18.39685    16.17651
-15.37504   -20.90267    -0.37510
 -5.44052    -5.18158    13.29349
-10.42991     6.62139   -16.79295
 14.23251    10.36035     0.50886
 -7.69581   -15.38704    -9.61293
 -2.81124   -15.11912     2.07615
-11.48144    15.67202    17.31945
  6.49186    17.12233    -5.71770
  9.50099    20.80313    -1.63601
 20.29568     8.85995    -6.97012
 -0.17513   -16.43327    19.54975
  1.07123     8.47819     7.39704
  3.69900   -11.21269    15.07320
 10.75222     0.31326     0.68905
  9.50321     4.03980    11.34324
 -1.55217   -10.18763     8.30010
 18.88465    -2.17079     3.13625
 15.63270    19.08145    13.54364
  8.46333   -20.90208     5.68182
  8.18928     6.57006   -14.54918
 -8.64716   -11.12488    -3.09851
-11.62606    14.98895   -11.59440
-11.11867     7.92291     9.38492
  1.50020    -8.37899    19.83856
-19.53566    17.64279    -2.06740
  6.30467     7.00172     8.64164
 -0.41728    -0.95608   -14.39459
-15.66092     4.72971     6.43037
 -4.20769    13.45754   -16.18574
 14.59078     3.63889   -11.06018
  6.47631    10.77636     9.68894
 -5.88433     6.33473   -15.36173
 -0.53599   -14.73131    -8.69578
 17.81161     5.83245    14.37837
 -3.48817     5.76833   -18.18350
-16.42341    -9.59131    -9.27394
-10.69392   -18.74331    15.34193
 10.42798    -3.60723    10.65090
  3.90954     2.51594   -16.01081
 20.23973    -3.87122     7.63155
 -1.44933   -13.49881    10.40209
-11.88022    12.08223   -14.10646
-20.07572    11.03349     9.60293
  9.05924     3.77019    15.37904
  7.72173    12.47590    15.53882
 13.73214   -16.26226    20.92485
 12.85446    -6.63203    -5.85457
-14.20768    -8.98230   -20.73100
 11.52567    -3.11356    -1.31619
  3.00705    12.32376    13.72191
-11.22987    14.63946   -17.24827
 -9.35283     1.45778   -16.60570
 16.85429    19.80144    17.34782
  3.36614     7.86008    15.02383
 -2.94187     8.21772   -13.65950
  4.63998    -6.76633    -2.10713
 16.55979   -15.72911     3.58787
  8.93173     7.78708   -10.61451
 20.21713     5.04427   -10.35010
  2.37808    15.60295    -9.90839
-17.32763     0.27492    -3.29628
 12.17164     5.58791   -15.84591
  4.51684   -20.08326    10.24798
 -3.17743    18.89755    13.62230
  9.86197    -8.24247    -4.61366
 14.95294    -7.00069    -1.80950
 -8.03620    -1.76846    -2.98349
  7.30749    -7.92984   -10.77522
  6.24260     3.30812     7.68249
 -6.34824    13.87725    17.76367
 -9.05564    12.47892   -10.39418
  7.02398   -18.04566    -0.70456
-10.62804    -3.60757   -17.12113
 -2.07847     4.34799    18.82856
 -4.70582   -12.38386    15.10822
 -8.52897    -3.42416    13.72286
  3.44524   -19.29334    18.42572
-10.76361    20.72430     8.94652
-18.90789    13.71662    12.15420
-13.91447     0.91585   -13.66292
-13.13473    19.09790   -17.72669
 -2.55250     1.33218    -3.03374
-12.10871     4.16900   -18.62625
 -9.82383     4.11120    -2.45824
 11.87724    -7.37635     9.20574
 18.51796     6.01030    -0.93073
  5.50918     1.74675   -19.76335
-18.49483   -19.62277    -2.65219
  0.86704    -6.62224     9.84852
-13.09809    -5.99361    19.44702
-16.63433     4.47056   -19.42488
 15.76310     4.02998    -4.81494
 11.95237    20.29967   -19.70147
  2.99826     4.68064   -20.35440
-14.52458     7.88490   -18.23371
  5.04409   -12.84876    -3.13510
-12.15228    -2.48599     7.72434
-12.23190     0.93207    15.80234
  7.49579    12.69043     3.87287
 -0.28885   -17.53145    13.63339
 17.50762   -13.45059   -11.39363
 -7.81707    -8.28784     2.66234
  8.22326    12.89627    12.08957
-17.05823    17.43219    -5.26631
 -1.83220     7.87110    17.17822
 15.34090   -16.52732   -13.84496
 16.78562   -15.63967   -17.85736
-19.15798     2.60974    12.92935
  5.02911    20.75214   -14.11212
 17.94263     5.80123     6.49885
-13.97489     7.46067    -1.13521
 19.37313    19.70463    -2.61739
-14.62603    15.08842    13.53501
-20.81445   -15.41241    17.68348
  2.37758    17.24990    -5.10036
  7.06551     3.75046    -2.45200
  0.60648    -9.35191    12.94485
 -7.58357    11.38685     7.68008
 -5.20514     1.87587    -9.07216
-12.53700     8.03922    -6.89875
  8.03575    -1.73699    -5.55062
 -4.45546     0.55684     5.89059
-16.01790    -2.39087    -0.45297
  8.52819     7.16559    -6.18340
 16.63430     1.09223    -7.23835
-16.65576   -15.45046   -13.07228
  2.29620   -12.44596    18.98978
 20.39009    -5.71117     0.62488
 15.30041    -0.82450    11.31252
 -8.67939     4.03328     4.87741
-10.54671    10.99642   -17.51053
-20.58000   -18.15591     8.27573
  7.98782    -3.64410   -16.40475
 18.79298    -3.94655    -5.87586
 20.49616    -5.60470    15.56640
-13.48614   -14.54550    15.05473
  0.41146     3.76760    11.47964
  1.69342    -0.54436    -4.71873
 -5.77996   -10.14739   -18.43787
 -9.28398   -15.24208    14.94237
 -2.67937    -8.69154    11.54422
 -5.38013    13.41579   -11.84683
 -7.65816    -2.96776   -15.10654
 17.03443    16.20155     5.32274
 -5.43173    17.07399    -9.97880
-10.63391   -18.29415   -13.62537
  7.21108   -16.22046    -5.02794
  0.91650   -20.42440     2.10466
 11.00383    -6.75349    12.62605
  2.45991    -6.08079    13.40330
  0.18393     0.40057    18.37271
 19.42922     1.45356   -16.43032
  1.58822     2.43964   -12.52710
-19.22114     7.23323    19.03065
-17.97338    15.04754    15.80191
  3.83505     8.34279    -9.77856
 19.32025     7.90616    17.10439
-20.43312   -20.96068   -10.12719
 12.81751    -2.10538    -8.15730
-11.74242    12.20328     7.81140
  1.10699   -14.17189     7.44270
-12.26680     0.07788     3.75351
-14.82132    -1.67587   -17.33476
 10.68620   -13.98974   -13.15730
-18.13408    18.60241   -17.71693
  3.74735    12.95566   -19.67131
  4.56595   -13.57953   -14.71956
-18.96486   -15.45999    10.89350
  8.63103     3.40477   -19.78001
  0.30257    -1.38644    11.78116
-12.81400    -4.52154    -0.95594
 18.33854    -1.82389    -1.33580
  0.89529    15.62422     6.41701
-16.77514     7.33634    -7.46707
 19.28912   -15.92750    13.84977
 -9.74229   -17.05292     2.18629
-14.39865   -13.79978   -19.53375
 -7.20479     4.66114    11.88797
 -1.55378    17.12704   -17.56422
-12.26827    14.85047    -0.39773
 15.94162     6.82867   -17.81961
 -0.46344   -12.66804   -19.30711
 -4.07868    -5.54584    16.65071
 12.75485   -18.42364     9.14709
 -7.24562   -20.90611     7.04193
-17.91155   -19.84239    17.78336
  1.71655   -10.17865    -2.73533
-11.22755    -7.85673    -1.84597
 18.46176    18.72051    10.63486
 15.49293    13.07154     3.33604
 -1.04729    -6.22126    13.84438
-14.65256    20.48183     4.21631
-17.03749     2.93069   -12.74651
-19.06167   -14.14821   -20.73396
 16.55954   -16.01647    -0.76396
 -4.75111   -20.98660   -13.97387
  9.52626    -4.72924    -3.98532
 20.04262   -13.50790   -16.79000
 -2.44998     4.27039    -9.16844
 18.69102    13.07918   -13.91540
  5.33435    14.95924    20.09762
-16.56215   -11.61076    11.13176
-10.95091   -12.75170   -16.82098
 19.91351     3.22147    15.67569
 -9.93993    -2.16887    17.74833
-15.38369   -18.75131    -8.82465
  0.14920     3.27192    -0.11083
  3.69498   -15.97211    -0.24893
  6.67377    -6.79298    -5.32358
 -3.69275   -14.53319   -17.10225
 -9.28222   -10.58189   -10.37278
 12.55649    20.94839     5.25015
  0.25282    -2.65517   -19.60554
  0.63146   -19.61259    -5.18513
 14.57368   -10.77795    10.83888
  1.98153    -1.08699     0.09658
 10.29909   -10.69167    11.06638
 -1.48720    -5.04911    -5.11315
 16.23707   -11.83284    16.16800
 -5.80860     2.68836   -20.55029
 -1.62520    14.50852    -8.45258
  1.64210    11.92871    -8.78204
 -1.21656   -13.70265    -1.10098
 11.85921    -0.58790   -16.54787
  8.73902    -0.15622    14.24215
 -4.33897    -8.83734     6.40219
 -5.34731     2.81123     2.87161
  3.73666   -15.29442    16.31565
 16.23794    -4.87348     2.17552
-14.92121     1.01986     8.08797
 11.97699   -10.80313    -2.47091
 -3.76786    -8.68677    -9.09954
  9.56016    13.27248    18.51660
 15.33001    17.61632    20.36916
 14.74383     0.26388   -13.72302
 -7.65483   -12.99152    18.52604
-15.10750    17.46423    -0.98695
-19.42672     1.52688     2.91230
 17.84838     3.92760     9.96737
 -7.51776   -14.11177   -19.79085
 11.81366    -4.81883     2.19900
 -4.85133    15.72690    -5.93344
 -2.95405     5.19842     0.32726
  7.68801    -6.92367     1.93927
 15.81293    12.91701    -2.62561
  5.97254     1.24237    -4.96457
  8.17014    20.38919    14.19675
-14.61080    -1.66582   -10.34777
 16.05262   -15.65427    11.84194
-14.45189    -6.88681     3.30750
 12.33707     2.36671    -7.24308
  6.75561    -0.00712    -1.15457
 16.45836     6.73062     2.79310
-10.77111    -7.08502     9.71952
-13.72175   -20.84059    19.39138
  3.36290    -2.05049    13.57155
 -4.62179   -11.93470   -15.16386
-13.06036     4.74795    -5.06836
 -6.00147     5.22243   -11.65315
 20.68569   -15.88673    -5.25029
 -5.06253   -16.03515    19.43587
 15.43965     0.43169    19.95921
-18.58126   -16.44582   -16.18587
  6.78119    -4.45938    -0.66903
-17.17728    14.83534    19.38604
  9.78218   -13.03433   -17.50301
 -7.95628     6.76461     7.34139
 -7.00959    -6.95469    -3.99830
  2.89319    -1.75125     5.16008
 19.19785    15.90343    -0.81611
 12.67130     6.51245     2.03826
-12.23823    12.40157    13.30632
-14.53543    -6.07573   -18.61121
 -9.68432     6.93466   -10.24865
 13.47376   -14.76219    -5.56502
 -7.66833     8.08051    12.66744
 -0.21500    -8.48754   -14.67172
 20.74208   -13.73693     2.28432
 -6.99754    15.95428     2.13841
-18.28479     4.79093     0.10090
 -7.37432    11.03529    15.17756
 -7.32538    16.83236     5.50677
-15.86383    -4.27697     6.23901
  8.69369   -11.60896    -5.50836
 -1.10744     0.10778     7.37559
  9.03973   -12.57019    15.17408
 -1.30476    13.61814   -19.50644
 -6.75887   -12.71438    11.85581
  4.42692    14.69619     8.18823
 -0.18379    -5.86123    -8.71958
 -4.74511    -4.37197   -12.62537
  1.35672    10.69838    -4.43902
-11.04676    11.83283    -7.18673
 10.35170     4.21179   -12.04887
 13.60137    -7.55106    20.61111
  2.49454     6.57723     3.53600
-12.64511     4.21409   -13.87760
 10.65035   -19.80305    -9.77603
  1.10301    14.13390    10.05436
 -1.83792   -17.14771   -19.13257
 -8.21970    11.88002     0.36589
 20.33084     6.26092     4.28958
  0.95849   -15.63099     3.00717
 15.32652   -17.83744    -6.66801
 -4.40879     8.04277     5.22825
 20.91095    -4.10250   -10.14138
-20.95858     9.16425   -13.73208
 -5.47112    19.97447   -20.01755
 -0.34445   -13.59039    14.44617
-14.88248    -6.01316    -9.62070
 -6.17030    -9.48442    17.39916
-14.20791     7.39983    18.92183
  7.52871     4.54215    -9.12297
  8.79838     6.23020    19.60293
 17.15178    -6.98780    -9.78594
 -5.53403    13.62891   -20.26337
 11.61943    13.90860    15.69658
  8.54866     5.16386     1.27713
  4.90989    15.76768   -14.34073
 -2.81235    12.65184     2.94863
 -4.94525    -3.50463    -3.98418
 -7.59119    -0.94126    -7.05777
  5.74240    20.36299     0.12589
  1.04232    -5.71318    17.34725
 -7.71420    -9.70462    -6.62473
 -5.82496     1.06896   -17.20343
-15.31360    -7.03975    14.20859
 -3.02187    -8.40712    -4.46149
 -4.21165   -17.38268     7.36612
 16.92874     9.48105    12.56753
-17.95358   -18.50040   -11.54574
 10.64142   -10.23423   -14.52107
  4.31906    -2.19930   -17.34065
 10.18373     5.96413     6.68848
-13.35198   -15.52849    18.68900
 18.25100   -19.29914    -0.06235
  1.17224    10.79838    19.90187
 -2.35263    13.18475    18.81572
 -7.37986    16.06544   -17.31294
  8.00429    18.02344   -15.30910
 20.11507    18.75784   -18.90427
-15.75418    11.85492    -6.55606
-13.78215     9.58222     3.46642
  2.92463    -5.54228   -12.14142
 -7.39702    -6.86339   -11.56529
-19.42898   -10.49403     9.05253
 -1.38595    -2.53160    -2.18192
 -3.15420    11.63306    -5.81693
  4.22788   -20.04215     5.07451
-12.40684    18.53045    -6.92886
-10.55408    11.59986    -3.77256
 12.63943     5.42624    18.03366
-15.43228    20.66188    -4.78862
 -1.40333    19.03280     1.97408
  6.70504   -15.07186    -9.71691
 -2.66681   -18.70206     3.31050
 -3.94341    -0.38442    20.48298
-18.56249     1.40831   -17.64301
-19.28891    13.43256     0.16202
 -1.55235   -12.88735    17.67919
 -8.72385   -16.54998    18.13084
 -9.70266   -17.21906    10.32149
-14.89834     4.20132    14.91514
-13.31049   -10.68248   -11.21190
 -5.82637   -13.95207     8.20206
 -5.76890   -19.32301   -10.62201
 12.53976    -3.82562    19.15670
-10.45361    -5.79705   -13.80334
  4.41051     4.69850    -5.61957
-15.09991   -15.04680    -8.92694
-20.95973    18.58478    -6.04039
 -9.93801    18.74689   -14.74881
 -8.60481     8.83852   -20.35461
-18.34241    10.82409    17.56933
 -6.13170   -16.45547    14.20214
-19.03866    -4.13085    19.49093
 15.55301   -11.24062    -3.05783
 15.55946    16.06675    10.56815
  0.86966    -2.47314   -10.62686
  0.02924    10.59403   -17.68970
 13.88276    14.42403    18.46780
  7.89474   -16.06802   -15.60437
  3.36277   -14.76366   -20.52628
-14.40794    -3.03763    -4.93323
 -2.88127    -9.64338     0.39124
-14.23624    19.33922   -13.57389
 -7.96482     8.90196    -3.06518
  8.56364     8.20055    -1.96367
 17.64758     9.61914    -3.24670
 15.62790    -0.51366   -17.63059
-16.39147     8.63214     6.31269
 18.35373    15.94384    -8.71350
  1.07305    -3.83268     7.55712
 20.55229    10.00638   -18.09698
  9.66932    19.65985     2.50539
 20.27750    14.86229   -19.78932
 11.55310     3.11596    -1.30859
  7.87113   -13.46819    20.93099
-13.60600    15.88494   -14.62151
  4.26050   -15.86459    12.51966
-19.24188    13.05738   -15.32605
-12.35918    -2.39533    13.10546
  4.34713    14.86022    16.09336
 10.03784   -16.41558    16.02980
-14.26035    16.68444     2.47385
-14.88123    11.80821   -16.68624
  1.00500     2.96745    15.74019
 -6.60028     3.60723    15.53450
-19.39212     8.53070    12.26331
  8.42220    13.96605     7.17956
  8.77342    12.76938   -19.02814
  7.78005    19.28513     9.64466
 -8.59000    -1.12068     1.81371
 20.61282    11.63270    13.83556
 17.29567   -18.42862    -3.60143
 -3.30867    -3.58693     6.32604
  6.53976   -16.81406    18.92459
-18.71760    -9.86035     2.61637
  9.87963    13.24491    -7.07043
 18.97925     0.87791    19.67387
-13.90043    15.03565    -6.08383
  7.82273    -9.57661     6.23593
  1.55025     4.41430     7.11066
 11.93612    -1.00000     4.64030
 14.08468   -14.53904     7.53436
  9.78623    16.81175     5.21973
 15.12620    -4.72648     7.41185
-19.35292    -0.95401   -14.78344
 13.37321    18.30265    -6.01016
  4.19317   -17.24586   -13.42039
 -6.84640   -17.86233   -19.69130
  9.79302   -17.30929    20.57258
 12.54067    12.21233    -9.51906
-18.07887     7.12537   -16.37840
  3.52241   -10.02931   -10.03107
-18.51317    20.65688     5.69340
 12.46750    16.20076   -19.24989
 11.71189     9.96787    -6.77498
-19.83937    -5.19768    -3.04707
  3.87464    -2.62058    -8.60624
 -2.35025     3.62235   -13.50923
 20.29461   -19.47258    -6.22342
 19.59297   -18.02707   -17.96235
 -1.33119    -4.98334   -13.53673
 -4.01696     9.42946    -1.69924
 16.47362    20.34462    -7.62690
 -1.26911    12.85303     6.63024
 -1.17530    20.76669   -10.57254
  0.67662    -7.49791     1.95397
  5.35876    16.90899     4.57357
 -3.75839   -16.57693    11.63997
 19.13652     0.75114    10.25653
-15.50938     1.71539    20.56034
 17.91983     1.83296   -10.76250
-10.01269     4.15318     9.25423
-17.05493    17.31074    10.58576
-10.66915     0.39502    10.16787
 -2.92990    -5.71019     0.08669
 -0.40028   -12.02186   -15.38508
 10.54470   -18.01581     0.88516
 -6.58721    -3.94615    19.43684
 13.85550    18.69855    -1.86183
 12.11363    10.54686    12.62280
-13.86463   -14.74043    10.42625
-15.79932    10.06133    -3.42848
 17.93686    17.59348   -12.58848
 12.87737   -14.29516     0.89377
 11.06158    10.90213     8.88807
 -6.82247     2.75317    -5.37217
 11.44614   -10.53384     1.99782
 12.13571     8.11925    15.84722
 13.32045     8.57951     5.57764
 -7.37076    -5.10217     1.48510
  2.12359   -12.92146    11.04751
  3.79356    -6.52285     6.01031
-19.47206    14.35011    -6.13704
 -2.49819    15.08921     0.39653
 -7.31447    10.44025    -6.63599
 12.94823     8.94516   -12.06536
 18.34278    -6.58142     4.76133
  1.84489   -20.18158   -19.59089
 12.04583    -4.23475   -14.69476
 -5.16186    19.41627     2.72996
 19.34271    -6.89902     9.94724
 14.90232     8.37251     9.38942
 -9.41231   -14.58974     7.53529
  0.32857     6.60862   -14.80669
  4.14651    11.37923   -16.18179
  5.06238    -2.46941     2.08652
 -8.61605   -18.22325    -3.29963
  6.49590   -10.99113    -8.25811
 -8.56030    -1.59383   -20.01207
 -8.13467    -4.17658     9.98507
 19.02743   -11.82683    10.62011
 -8.63986    14.99486   -13.79152
  4.52252    14.26394    -6.66458
 -8.68825    -3.63275   -10.94967
  6.80782    13.48051    -2.87511
-18.88411    -2.01814     5.69554
-20.79247    17.56197    14.81609
  7.26117     6.27402     4.83084
  7.52196    -2.50214    -9.62903
 20.72944   -10.33901   -10.83195
-11.17187   -12.15339    20.12405
-11.07173    -8.83581     5.67674
 -9.72748    19.75527    20.34592
 -8.07472   -17.81833     5.24457
 -9.29921    -6.38865    16.99265
-11.19567    -1.46617   -14.06742
-12.96613     5.90482   -10.84954
  9.29337    -1.63302    18.28538
-19.66520     0.04285    15.72792
 -5.61562    15.81670    14.88462
 11.48784   -20.44282   -13.94206
  4.10532   -20.32060    -6.32094
 15.47328    -9.27848    -7.02868
 18.34413   -18.86768    10.40840
 -3.74090     7.40674    -6.30104
 10.80310    17.59018    -8.47586
 16.55830    16.03939    16.52521
-17.36828    10.64500   -19.79429
  6.60186    17.97422   -11.34001
-17.37435    14.42299    -3.28885
 -3.52599    -3.10267   -16.03956
 -7.96905    13.01244     4.11927
  3.99798    -3.00672    -3.89636
 14.81093   -12.10575     3.58682
 10.01335    -4.92623    -7.83693
-14.95765    -8.03969   -13.01182
  3.27836    -0.76592   -13.63788